ply
format ascii 1.0
comment alvar_tracker Pointcloud
comment filenames IMG_1600.JPG IMG_1610.JPG IMG_1611.JPG IMG_1609.JPG IMG_1608.JPG IMG_1601.JPG IMG_1602.JPG IMG_1603.JPG IMG_1607.JPG IMG_1481.JPG IMG_1618.JPG IMG_1616.JPG IMG_1615.JPG IMG_1619.JPG IMG_1482.JPG IMG_1617.JPG IMG_1605.JPG IMG_1483.JPG IMG_1606.JPG IMG_1604.JPG IMG_1480.JPG IMG_1614.JPG IMG_1435.JPG IMG_1429.JPG IMG_1428.JPG IMG_1436.JPG IMG_1430.JPG IMG_1434.JPG IMG_1431.JPG IMG_1433.JPG IMG_1432.JPG
comment filenames IMG_1427.JPG IMG_1426.JPG IMG_1443.JPG IMG_1442.JPG IMG_1444.JPG IMG_1441.JPG IMG_1437.JPG IMG_1440.JPG IMG_1438.JPG IMG_1439.JPG IMG_1425.JPG IMG_1626.JPG IMG_1627.JPG IMG_1628.JPG IMG_1623.JPG IMG_1624.JPG IMG_1625.JPG IMG_1629.JPG IMG_1630.JPG IMG_1586.JPG IMG_1589.JPG IMG_1590.JPG IMG_1591.JPG IMG_1588.JPG IMG_1585.JPG IMG_1592.JPG IMG_1598.JPG IMG_1596.JPG IMG_1597.JPG IMG_1584.JPG IMG_1587.JPG
comment filenames IMG_1445.JPG IMG_1634.JPG IMG_1633.JPG IMG_1632.JPG IMG_1631.JPG IMG_1599.JPG IMG_1490.JPG IMG_1491.JPG IMG_1492.JPG IMG_1595.JPG IMG_1593.JPG IMG_1594.JPG IMG_1612.JPG IMG_1493.JPG IMG_1472.JPG IMG_1471.JPG IMG_1473.JPG IMG_1474.JPG IMG_1484.JPG IMG_1451.JPG IMG_1450.JPG IMG_1452.JPG IMG_1456.JPG IMG_1454.JPG IMG_1583.JPG IMG_1621.JPG IMG_1449.JPG IMG_1464.JPG IMG_1470.JPG IMG_1489.JPG IMG_1469.JPG
comment filenames IMG_1613.JPG IMG_1620.JPG IMG_1455.JPG IMG_1463.JPG IMG_1465.JPG IMG_1466.JPG IMG_1453.JPG IMG_1462.JPG IMG_1582.JPG IMG_1494.JPG IMG_1495.JPG IMG_1496.JPG
element vertex 947
property float x
property float y
property float z
property uchar red
property uchar green
property uchar blue
element vtt_fi_alvar_camera 0
property float fx
property float fy
property float lambda
property float px
property float py
property int width
property int height
element vtt_fi_alvar_keyframe 0
property float x
property float y
property float z
property float qw
property float qx
property float qy
property float qz
property int camera_index
property list int int vertex_index
property list int float projections
end_header
0.0413653217 0.255444229 1.06519878 195 106 120
0.0380152687 0.00331770815 1.07308865 223 193 185
0.0362249166 -0.00796705484 1.05690813 149 79 89
0.046514485 0.487372011 0.901026905 49 91 103
0.0449289978 0.204920128 1.09576857 193 185 180
0.0640068501 0.757680893 0.784731507 200 199 178
0.0603025705 0.639668524 0.674602032 222 206 181
0.0453759097 0.199965298 1.11252487 31 27 47
0.0395707637 0.397252768 0.726081491 28 27 28
0.0467523411 0.472389042 0.91106987 22 70 112
0.0561923832 0.641942263 0.882006228 227 215 193
0.0399986282 0.0148031032 1.10079575 232 203 191
0.055344142 0.639343262 0.933080912 229 221 201
0.0544670075 0.660357177 0.951560497 23 28 69
0.0541436374 0.662989259 1.01429331 17 26 72
0.0547036529 0.659302831 1.02109361 221 210 197
0.0454004556 0.494204789 0.875840724 97 159 171
0.0553262308 0.649581969 1.06493616 24 28 73
0.0563509613 0.648506045 0.887766957 228 211 185
0.0552907512 0.65018487 1.07684577 30 34 76
0.0472844243 0.430651337 0.742258847 43 31 35
0.0547425225 0.652598858 1.13463998 25 33 77
0.0547765493 0.652346909 1.13468051 25 33 77
0.0547037423 0.652667701 1.14625251 17 29 69
0.0545660779 0.653061926 1.14623511 17 29 69
0.0538474135 0.667900801 1.07528257 20 34 71
0.0543978959 0.662985504 1.08231318 222 208 196
0.0554400235 0.660651386 1.20264328 208 199 180
0.0557885543 0.668221354 1.22914445 212 199 188
0.0558479801 0.756751359 0.84801513 155 158 145
0.0537572876 0.671358466 1.15514207 24 36 74
0.0369476043 0.434998512 2.96552896 153 106 99
0.0409684852 0.235245854 1.10013342 207 187 176
0.0478221364 0.397302002 0.710992098 63 88 56
0.0574826747 0.650693774 0.825214207 227 210 182
0.0546098724 0.66442883 0.812988102 35 47 76
0.0546057373 0.664451778 0.812992394 35 47 76
0.0554162413 0.642347753 0.875620842 33 36 72
0.0541306138 0.755619586 0.84166193 100 140 160
0.0552104488 0.669406295 0.912971795 40 45 80
0.055736959 0.645853639 0.894633949 225 207 183
0.0557336584 0.65662533 0.893682122 230 213 187
0.0602181852 0.75597024 0.798240304 97 136 146
0.0572584644 0.758071184 0.869193435 96 135 151
0.0572584644 0.758071184 0.869193435 96 135 151
0.057155095 0.759955406 0.856299877 224 217 189
0.057155095 0.759955406 0.856299877 224 217 189
0.0646622628 0.761070788 0.783432305 227 215 186
0.0589005128 0.75959909 0.816836357 222 219 190
0.055812031 0.755311906 0.850883961 222 213 190
0.0599094182 0.759602666 0.805190623 219 215 190
0.0599788725 0.618740261 0.856197298 206 193 177
0.0475285351 0.471161395 0.888052762 118 183 192
0.0588309765 0.762052178 0.866777062 222 215 196
0.0464026742 0.479692847 0.887908041 75 138 162
0.0582457185 0.752243221 0.805018723 219 214 184
0.0582457185 0.752243221 0.805018723 219 214 184
0.0478221364 0.397302002 0.710992098 63 88 56
0.0351067036 -0.0333644226 0.878516376 247 237 225
0.0467408374 0.497640997 0.886661053 58 105 147
0.0587671772 0.759924889 0.824813366 228 215 183
0.0587671772 0.759924889 0.824813366 228 215 183
0.0469202027 0.494371772 0.894438446 69 126 146
0.034621343 -0.037542209 0.650746584 86 71 52
0.0569586828 0.621307433 0.907823265 52 50 66
0.0563520342 0.753514051 0.852702677 217 212 191
0.0554547161 0.62570864 0.908695042 70 69 91
0.0578466952 0.651040733 0.869260907 33 37 74
0.0578466952 0.651040733 0.869260907 33 37 74
0.0405207202 0.428580642 0.697004914 22 83 124
0.0426608026 0.42663312 0.891480565 13 43 89
0.0676419064 0.753133893 1.30649042 74 119 140
0.0676419064 0.753133893 1.30649042 74 119 140
0.0515179001 0.766770303 1.28210795 215 199 174
0.0390408374 0.285172343 1.10330319 131 117 114
0.0280487351 -0.0916588083 1.00427282 218 214 212
0.0280487351 -0.0916588083 1.00427282 218 214 212
0.0555064157 0.660706282 0.952251434 25 34 67
0.0561648607 0.772699654 1.23088884 23 53 92
0.0561648607 0.772699654 1.23088884 23 53 92
0.0587389395 0.623099267 0.950731099 153 146 143
0.0560651198 0.654633284 0.870224357 201 185 169
0.034621343 -0.037542209 0.650746584 86 71 52
0.0521474034 0.669600666 1.0689714 206 193 173
0.0318966731 -0.180996493 0.701127052 46 40 32
0.0580134019 0.674911678 1.2384429 22 36 71
0.0580838323 0.651911259 1.10705912 25 38 68
0.05558981 0.656992674 1.00309539 28 37 66
0.0592774451 0.785223186 1.28106487 34 57 88
0.0575575903 0.66898793 1.12455201 21 35 65
0.058719933 0.674711287 1.22077298 24 35 66
0.0545655638 0.659496188 0.995221436 200 192 169
0.0530782379 0.668355882 1.14631069 23 31 65
0.0561113656 0.782980442 1.22770321 28 53 92
0.0561113656 0.782980442 1.22770321 28 53 92
0.0574745983 0.665630043 1.13039851 204 193 175
0.0574745983 0.665630043 1.13039851 204 193 175
0.0574865341 0.671970963 1.21193159 24 33 66
0.0589079782 0.772824407 1.27584898 25 51 81
0.0581736341 0.771612585 1.25734293 23 49 88
0.0581736341 0.771612585 1.25734293 23 49 88
0.0575638786 0.671660185 1.06345034 201 190 174
0.0367616527 -0.0252323598 0.78082335 220 208 192
0.0533629917 0.671578467 1.18703425 28 40 69
0.0537000373 0.664995909 1.15264928 209 197 180
0.053746514 0.664929152 1.1526612 209 197 180
0.0538280085 0.671786904 1.16909552 29 33 72
0.0549242646 0.651935875 1.12029219 24 32 63
0.0549195185 0.651884198 1.12028754 24 32 63
0.0551130921 0.66265583 1.18569958 26 37 68
0.0598716289 0.657755971 1.24453235 27 32 66
0.0583557338 0.656795084 1.22657001 22 31 61
0.0565089658 0.783325315 1.24574947 30 49 83
0.052486863 0.870498538 1.42334759 210 191 158
0.061118193 0.782585323 1.27245784 211 201 177
0.061118193 0.782585323 1.27245784 211 201 177
0.0564837977 0.658022821 1.24672973 208 194 176
0.0583652183 0.654308498 1.16409683 30 38 66
0.0539390519 0.649541914 0.878276646 29 34 70
0.0539390519 0.649541914 0.878276646 29 34 70
0.0533511862 0.797027707 1.21756625 84 118 134
0.0533511862 0.797027707 1.21756625 84 118 134
0.0585455671 0.660311043 1.19523978 209 196 184
0.0585455671 0.660311043 1.19523978 209 196 184
0.0569490343 0.648058593 1.01558089 23 34 64
0.0576310158 0.661434054 1.2042793 203 192 176
0.0595647693 0.669788063 1.21949685 208 201 177
0.0596024469 0.669753373 1.21951199 208 201 177
0.0598964766 0.781315506 1.25359356 211 200 178
0.0598964766 0.781315506 1.25359356 211 200 178
0.0579890758 0.665325046 1.19979393 30 36 66
0.0498600714 0.474096507 0.853838146 23 18 24
0.0606309548 0.670389295 1.23458266 207 200 180
0.0552944019 0.653933287 1.17457891 28 35 69
0.0552944019 0.653933287 1.17457891 28 35 69
0.0561218411 0.668034792 1.1919235 211 198 179
0.0581435934 0.668711901 1.19425237 211 198 179
0.0535389595 0.785295427 1.21731031 213 200 175
0.0601471588 0.656402051 1.21392441 26 30 62
0.0577139631 0.65577513 1.21109962 26 30 62
0.0583557338 0.656795084 1.22657001 22 31 61
0.0595269948 0.682142615 1.23907042 30 35 73
0.0595269948 0.682142615 1.23907042 30 35 73
0.0446311012 0.492448896 0.907064259 118 170 179
0.0387223959 0.260860622 1.11073303 106 84 82
0.0580109134 0.645536959 0.876340568 28 35 72
0.0465460606 0.469572157 0.904446483 35 94 137
0.0559619665 0.671653032 1.06622541 202 190 172
0.0559619665 0.671653032 1.06622541 202 190 172
0.0605091006 0.789030671 1.2940625 42 55 79
0.0605091006 0.789030671 1.2940625 42 55 79
0.0596935302 0.784222722 1.28726208 210 196 174
0.045581542 0.492749482 0.882870853 107 160 181
0.0560934544 0.616652668 0.863767743 35 36 55
0.0456018448 0.488918871 0.887260795 115 171 175
0.0457022227 0.486737639 0.875677586 52 116 147
0.0457022227 0.486737639 0.875677586 52 116 147
0.0453891382 0.485291362 0.895589232 69 131 151
0.0459899493 0.492474586 0.898492634 109 169 179
0.0464124605 0.486628652 0.903587818 117 166 181
0.056168884 0.622487545 0.90927279 194 190 170
0.0581802055 0.661345243 1.24409258 209 198 181
0.0570150092 0.623154938 0.945813239 198 190 179
0.0463570692 0.485660434 0.874576986 64 128 161
0.0470445454 0.473641276 0.865119576 36 78 130
0.0552967414 0.617106318 0.877591133 39 35 53
0.0445787981 0.475296378 0.918521047 50 102 157
0.0462759919 0.478441715 0.91892159 21 70 126
0.0515855514 0.469780356 0.934561193 28 37 57
0.0460346714 0.481705666 0.885089874 90 143 161
0.0469256826 0.491345108 0.875167489 32 87 115
0.0458176844 0.482328236 0.887804687 64 118 139
0.0462409593 0.471731752 0.898158312 86 146 163
0.0454088785 0.488232881 0.903159201 46 97 126
0.0446413569 0.491159976 0.911990702 87 137 157
0.0358929597 0.0114327958 1.19542754 233 232 226
0.0334233269 0.00167495944 1.18561709 237 237 231
0.0385547653 0.00314711221 1.11586797 200 156 148
0.044251103 0.338790178 1.40811706 188 175 141
0.029426001 0.0146865398 1.0802567 165 52 49
0.0189254247 0.195502505 3.15412235 170 134 127
0.0432228334 0.163503513 1.14112222 30 32 43
0.0435005464 0.166771203 1.13575935 187 186 182
0.0380211957 0.26383388 1.11441112 202 179 168
0.0290423296 0.380473018 3.08738828 158 144 140
0.0357417613 -0.0443789959 1.16590118 219 221 216
0.0369211361 -0.00315555558 1.05463696 220 221 215
0.0369148478 0.00289388373 1.09255719 189 144 129
0.0292791985 -0.0678464994 1.03383386 136 137 132
0.0399408415 0.010450704 1.22097886 222 222 217
0.0399856642 0.0382274315 1.19247651 26 25 23
0.0332948379 -0.0927188769 1.12554121 219 219 216
0.038684532 -0.0134154987 1.04784966 220 223 215
0.038684532 -0.0134154987 1.04784966 220 223 215
0.0308410153 -0.103549577 1.16007054 164 165 160
0.0262173153 -0.0939908028 1.00085044 211 166 163
0.0324477255 -0.104640409 1.16727209 169 170 164
0.0262173153 -0.0939908028 1.00085044 211 166 163
0.03644922 0.0442906618 0.986905456 133 62 51
0.0279058591 -0.0855159089 1.01903355 31 31 28
0.0379156843 0.0337610878 1.1574409 202 203 198
0.0446123481 0.175387695 1.17122447 26 24 30
0.0362899676 0.0508173034 0.97797519 186 126 115
0.0319773331 -0.0526177138 1.09317577 174 105 101
0.0284011438 -0.102868691 1.0685333 219 219 217
0.0326737687 -0.104970053 1.17372489 124 125 119
0.0448486879 -0.0482601151 3.19610882 173 108 130
0.0354489386 0.0565707721 1.15350044 108 112 98
0.038642358 0.014652092 1.10419762 161 55 49
0.0344236568 -0.0242783651 1.1456461 37 35 27
0.0389180705 0.238254398 1.11404788 166 131 117
0.0385320298 0.238288045 1.11378586 166 131 117
0.0386729948 0.0452564396 1.24864542 199 200 194
0.0411240458 0.235036671 1.11050904 166 131 123
0.0326026939 -0.103172645 1.21468556 132 133 127
0.0315045491 -0.0505757034 1.03343391 147 149 148
0.0326428302 -0.104537033 1.10801971 220 222 215
0.043926809 0.207991496 1.15229726 181 180 174
0.0406956114 0.00973284058 1.21997845 220 221 215
0.0448486879 -0.0482601151 3.19610882 173 108 130
0.0310572758 -0.0538099408 1.09650218 224 220 217
0.0399453379 0.0151817687 1.18103433 112 112 106
0.0324475281 -0.0555400699 1.09216499 221 222 218
0.0384766497 0.25038147 1.10992002 170 122 117
0.0324913301 -0.0323167145 1.18756688 226 227 222
0.036320582 0.0462923422 0.965498984 191 187 184
0.0390812047 0.0231034793 1.17418671 118 117 112
0.0314482935 -0.0514773354 1.09883153 161 92 88
0.0305519663 -0.0497709289 1.03264773 147 149 148
0.0288462825 -0.0646274239 1.14606667 219 219 217
0.040440198 0.29496935 1.10245121 186 161 170
0.0397178307 0.293586791 1.11809099 200 188 194
0.0476392433 0.401918679 1.10076058 23 33 52
0.0403000414 0.295136452 1.09792256 205 176 155
0.0403000414 0.295136452 1.09792256 205 176 155
0.0374968611 0.2661708 1.10495627 172 128 143
0.0463975109 0.340609998 1.12287104 236 234 211
0.0395097025 0.286446989 1.08829618 181 167 157
0.0337425172 -0.0921274871 1.12349784 221 219 222
0.0277660191 -0.201344177 0.912076056 164 158 158
0.0485813208 0.357892811 1.10054636 136 128 118
0.0488019064 0.361658186 1.10656142 244 235 211
0.0467281267 0.342186749 1.10722923 33 47 91
0.0468849987 0.34214893 1.09431517 32 29 58
0.0482880808 0.356650025 1.10731626 241 227 199
0.0488597117 0.363507748 1.10903263 32 44 93
0.0482303873 0.407120764 1.11990952 92 109 136
0.0468183421 0.342284918 1.1023469 42 46 87
0.0468183421 0.342284918 1.1023469 42 46 87
0.0466328114 0.340108544 1.09583998 241 233 206
0.0562389344 -0.0787917972 3.09138417 193 141 157
0.0477016754 0.4057751 1.10477901 37 50 68
0.0486828946 0.363766402 1.12582982 33 53 100
0.0383774564 0.263320357 1.0844636 209 190 176
0.0372079201 0.294363379 1.10786343 219 207 205
0.039465785 0.252557397 1.08152831 194 82 52
0.0387905724 0.259491444 1.08161545 186 62 42
0.0445276462 0.207301453 1.07663167 183 176 166
0.0445276462 0.207301453 1.07663167 183 176 166
0.0387507603 0.285077155 1.09280407 107 94 94
0.0401089862 0.244123608 1.08173525 193 134 136
0.0401089862 0.244123608 1.08173525 193 134 136
0.0387252904 0.259666532 1.09245729 180 88 95
0.0409650132 0.236953527 1.09373331 184 126 126
0.0385288224 0.25822103 1.09419549 214 184 173
0.0324477814 -0.10283304 1.11814106 39 33 35
0.039220605 0.257578254 1.10400069 213 198 176
0.0377104841 0.239748627 1.11614656 207 207 202
0.04543145 0.202677548 1.08131075 28 29 44
0.0340233035 -0.0848779306 1.13886523 171 163 171
0.0391849875 0.0414983481 1.21018171 197 196 192
0.0456700027 0.169373989 1.15009344 19 20 44
0.0489031896 0.475740522 0.908371449 84 153 178
0.0451735966 0.206302986 1.08950996 31 30 47
0.044604186 0.3421911 1.09843493 175 180 189
0.046993982 0.199469551 1.07793283 200 200 208
0.045108635 0.203427851 1.08901143 36 35 52
0.0383603014 0.260450423 1.10348725 148 42 42
0.044671528 0.207381025 1.10053062 30 28 49
0.0398837775 0.262144864 1.10456133 217 203 202
0.0433489829 0.24102734 0.873649716 205 183 181
0.038416937 0.04228146 1.25574362 28 26 22
0.0480255596 0.208183423 1.11382937 27 26 40
0.0451484919 0.0280605443 1.23052502 217 214 207
0.0537081473 0.621349335 0.94031173 79 76 81
0.0379724763 0.0192486886 0.819917202 228 220 207
0.0568223223 0.752076745 0.816473544 219 217 186
0.0568223223 0.752076745 0.816473544 219 217 186
0.0502406023 0.530969858 1.83898497 181 163 150
0.0396752432 -0.0139135756 0.910473287 151 140 138
0.0396752432 -0.0139135756 0.910473287 151 140 138
0.0561051443 0.666572869 0.852552593 32 39 77
0.0585712194 0.643300474 0.853055656 35 44 83
0.0568390265 0.619510353 0.867940009 167 155 136
0.034248963 -0.0331050828 1.02470911 220 221 218
0.0447901972 0.202730909 1.13080978 167 164 153
0.0354244076 0.264410913 1.22407699 85 55 96
0.0381557532 0.288801104 1.10686743 152 150 159
0.0386864133 0.0401503742 1.22723973 142 138 135
0.0386864133 0.0401503742 1.22723973 142 138 135
0.0392387137 0.287680238 1.1038388 154 149 160
0.0355617106 0.254289865 1.11669552 191 186 192
0.0381497443 0.285298645 1.09455907 96 94 108
0.0410859473 0.236550346 1.10159254 175 136 151
0.0410859473 0.236550346 1.10159254 175 136 151
0.0568390265 0.619510353 0.867940009 167 155 136
0.0387639329 0.235535473 1.10267425 194 180 186
0.0388501957 0.260007977 1.10021961 180 139 153
0.0370407701 0.253760368 1.1053133 193 181 191
0.0389132425 0.253319144 1.11637437 180 134 152
0.0390828662 0.29608801 1.09456551 190 158 169
0.0452025943 0.202934459 1.13591337 166 162 152
0.0398072787 0.233082786 1.11432636 165 132 146
0.0415988415 0.236549526 1.09761727 172 147 160
0.0419964343 0.23635906 1.0981499 172 147 160
0.0399805978 0.251552045 1.1123358 198 170 183
0.034248963 -0.0331050828 1.02470911 220 221 218
0.042938251 0.264258713 1.13522458 185 169 158
0.0423004217 0.248686552 1.10434973 181 169 157
0.0463001244 0.137815088 1.17822766 205 197 189
0.044236891 0.166429222 1.1361531 192 183 175
0.0410410315 0.287599117 1.10517311 147 136 133
0.0428733379 0.205496877 1.13145494 26 23 33
0.0434645638 0.203731418 1.09693432 34 28 42
0.0434081256 0.205761299 1.14117014 25 22 35
0.0302008614 -0.0826076865 1.05704284 211 207 202
0.0443280637 0.202340379 1.11712396 166 164 149
0.0477507226 0.416187704 0.689988613 26 79 125
0.0328686535 -0.165053755 0.753945112 30 23 16
0.0432377495 0.292447656 1.10777378 182 161 149
0.0426243544 0.238325968 1.10601437 181 165 145
0.0386428013 0.233400941 1.11844218 168 116 114
0.0421125442 0.207690716 1.13367569 166 163 155
0.0400879756 0.241693854 1.10976505 153 103 104
0.0445075966 0.208137438 1.09114707 154 150 149
0.0446253531 0.205523044 1.08695841 153 148 143
0.0433441028 0.210514009 1.13462234 154 154 144
0.0266532451 -0.218787238 0.936969459 224 219 216
0.0266363658 -0.249537855 0.877522409 207 202 199
0.0349149071 -0.110044897 1.19622111 220 219 214
0.0283396617 -0.194409609 0.909311235 229 221 215
0.034811914 -0.101097248 1.16965365 222 222 216
0.0247922912 -0.250146955 0.922349989 152 147 144
0.0358628295 -0.105520666 1.20368087 159 158 154
0.0357984714 -0.10431283 1.22757745 170 171 165
0.0357984714 -0.10431283 1.22757745 170 171 165
0.037463516 -0.0209314898 0.904838502 252 245 237
0.0335034728 -0.208616957 0.812892199 155 151 147
0.0287630707 -0.218015939 0.8405056 151 145 141
0.0358176567 -0.102963917 1.23554015 213 213 207
0.0293765888 -0.108379789 1.06375134 138 134 131
0.0289841034 -0.103822932 1.06367528 213 213 210
-0.22492142 0.290324092 0.113924615 42 33 28
0.035957247 -0.231602862 1.1993016 135 166 186
0.035957247 -0.231602862 1.1993016 135 166 186
0.0354991965 -0.105247103 1.20406151 192 195 188
0.0255011171 -0.212097496 0.92341274 208 206 203
0.0329791382 -0.235168397 1.12019348 60 83 85
0.0329791382 -0.235168397 1.12019348 60 83 85
0.0346409008 -0.224555761 0.805895686 148 146 141
0.0337465927 -0.103944547 1.18614078 213 211 205
0.0389552154 -0.167139575 0.879085958 177 173 166
0.0323825292 -0.104484774 1.16714072 194 191 184
0.0239751525 -0.237214357 0.926744282 112 108 105
0.0286097936 -0.190436572 0.918241262 177 171 168
0.0293891989 -0.25589475 0.843021274 146 141 137
0.0293891989 -0.25589475 0.843021274 146 141 137
0.0312328376 -0.258146584 0.822454274 133 130 127
0.0284813419 -0.237390876 1.08674324 145 176 190
0.027939789 -0.103910729 1.05132544 218 217 212
0.027939789 -0.103910729 1.05132544 218 217 212
0.0376473591 -0.230334386 1.20900834 18 21 23
0.0481294803 -0.203483641 0.7621122 223 220 214
0.0399810262 -0.266894549 0.752721965 127 124 120
0.0357335284 -0.229798689 1.20164275 16 22 24
0.0368489027 -0.263565034 0.772904992 123 115 112
0.0354395099 -0.105894737 1.23072171 219 220 215
0.0354395099 -0.105894737 1.23072171 219 220 215
0.059417516 -0.0854671076 2.42436671 229 211 163
0.0293604322 -0.147567466 2.46241879 132 111 89
0.0475130826 0.415158182 2.53954601 106 89 73
0.0486208908 -0.177607208 2.46422434 215 196 145
0.0569913685 0.410137028 2.03815556 94 80 70
0.0570978001 0.608648896 2.10448503 34 32 41
0.057257995 0.608605981 2.10460424 34 32 41
0.0561080948 0.396583378 1.81337154 92 81 74
0.0576370731 0.399616361 1.86730015 91 78 72
0.0773760304 -0.0855709314 2.44038653 167 161 150
0.0604291409 -0.152399644 2.67997813 236 215 198
0.0570785329 -0.074288398 2.45448899 140 128 118
0.050199762 0.400489002 1.86003661 120 103 93
0.0561363399 0.405456662 1.96904051 113 92 83
0.0494053476 0.423446208 1.87828243 170 152 137
0.0504796319 0.41456911 1.96627617 161 143 128
0.0870907828 0.900273383 1.75836313 116 94 65
0.0565846637 0.423752844 1.99581289 105 86 75
0.0465616845 0.412474185 1.94514775 164 146 131
0.0530252717 -0.242560863 2.78022575 212 106 91
0.0510576069 -0.0552322343 2.7898159 226 203 187
0.0638359189 0.335817784 2.54457688 102 88 75
0.0571340173 0.280388117 2.55800939 76 59 37
0.0641668141 0.0163746253 2.68582726 164 141 125
0.0516598113 0.0650066584 2.68150187 165 144 127
0.061605148 -0.227810934 2.69408631 218 108 80
0.0614593551 -0.22703886 2.71256566 210 115 89
0.0664493069 -0.270131975 2.73136997 230 209 189
0.0594356805 -0.226966038 2.6939857 218 108 80
0.0479009114 -0.245298386 2.6899724 217 111 85
0.0467404351 0.0440442339 2.69224024 145 122 108
0.0613748282 -0.231639713 2.72785687 205 114 81
0.0136294626 0.590522289 2.76751184 144 138 126
0.0398164801 -0.152017906 2.36231446 221 205 156
0.0606832653 0.420583725 2.67589712 126 73 56
0.100495681 -0.135553375 2.70890164 229 208 192
0.0713582486 -0.251704156 2.71567082 214 118 94
0.0506996736 0.5309726 1.83923411 159 140 125
0.0511396043 0.374185562 2.66137314 167 119 105
0.0378436334 0.511118174 2.7109921 130 72 68
0.0378436334 0.511118174 2.7109921 130 72 68
0.0681825206 -0.228493199 2.74682999 225 124 93
0.0173855145 0.498616666 2.70118117 163 137 118
0.0534712225 -0.0786443502 2.78736663 225 202 187
0.0693689808 -0.103290245 2.74318409 227 205 191
0.0698905885 -0.15077436 2.70531964 237 217 203
0.0520581342 0.0777703449 2.75817776 215 195 174
0.0321651734 0.186400279 2.71981645 208 182 167
0.0522729643 0.0298818946 2.69111323 219 196 180
0.0522729643 0.0298818946 2.69111323 219 196 180
0.0656917244 -0.262708992 2.70391512 221 119 95
0.0559684858 -0.224739045 2.76352048 222 117 92
0.0469869263 0.207677335 2.75706816 204 181 160
0.0729693621 -0.264428079 2.74038649 222 117 96
0.0471511073 -0.00813654996 2.77890515 224 200 182
0.0385424308 0.537745476 2.64099574 169 124 115
0.0337743163 0.537889957 2.64102244 169 124 115
0.0512105189 -0.0130934007 2.69897127 218 196 184
0.0512105189 -0.0130934007 2.69897127 218 196 184
0.0695831925 -0.244284868 2.7444818 218 110 88
0.0339801386 0.538008749 2.66075158 147 102 85
0.0339289494 0.818203628 2.62749672 63 16 34
0.0344877839 0.541140139 2.7311554 161 110 96
0.0344877839 0.541140139 2.7311554 161 110 96
0.0551366583 0.0522371903 2.68825769 218 197 180
0.0325456858 -0.10114675 1.11679935 30 30 30
0.0664625987 -0.238375723 2.73558903 240 206 190
0.0664625987 -0.238375723 2.73558903 240 206 190
0.069819361 -0.238015056 2.75579762 235 205 190
0.0698212683 -0.238015682 2.75579762 235 205 190
0.0734792799 -0.117328033 2.44017696 177 167 133
0.0373013765 0.821330011 2.61306524 65 21 33
0.0347425751 0.820829511 2.61310482 65 21 33
0.0598117635 -0.23929584 2.67434263 234 210 192
0.0669753104 -0.233955368 2.72759151 209 112 88
0.0336301662 0.535224199 2.6702373 160 133 111
0.0309120864 0.200489745 2.76449084 180 155 140
0.0425220542 0.377539366 2.70877647 146 124 111
0.0327854156 0.359331489 2.75423908 170 146 126
0.0327854156 0.359331489 2.75423908 170 146 126
0.036712233 0.356755495 2.7081511 167 144 127
0.0434082523 0.0446659923 2.69235849 181 159 147
0.0398854539 0.199098036 2.76444364 142 116 100
0.0596824214 0.343527675 2.74778628 170 149 129
0.0378043018 0.344175696 2.73792934 172 150 130
0.0378043018 0.344175696 2.73792934 172 150 130
0.0277506411 0.359084904 2.73674488 171 148 130
0.0277506411 0.359084904 2.73674488 171 148 130
0.042076081 0.370107114 2.71092153 164 143 125
0.0384630859 0.369617164 2.7002511 166 143 129
0.0384630859 0.369617164 2.7002511 166 143 129
0.0422722064 -0.110497117 2.62027979 236 217 201
0.1284509 -0.100797318 2.45780683 249 228 193
0.0416666195 0.376494855 2.7412076 116 92 80
0.0521293692 0.302346557 1.46052742 75 61 39
0.131878838 0.839758933 2.78167439 63 14 36
0.064922303 -0.0202251188 2.70521021 222 200 186
0.0342353024 0.461369514 2.90356946 174 146 125
0.0612258464 0.350923687 2.71505475 122 102 90
0.0662338436 -0.155449271 2.46395588 117 100 77
0.0197842252 0.430348486 2.79255915 171 120 103
0.0197842252 0.430348486 2.79255915 171 120 103
0.0270328969 0.571716607 2.73772645 161 138 119
0.0489095189 -0.20119299 2.77236438 237 216 205
0.0754970312 0.0452049673 2.86215997 227 199 180
0.029058069 -0.0879056379 1.00059533 186 132 129
0.0418068394 0.410604119 2.82556891 178 149 131
0.049424246 0.438146979 0.729493856 55 34 25
0.028010942 0.605004907 2.76798749 167 136 112
0.028010942 0.605004907 2.76798749 167 136 112
0.0257161371 0.613590658 2.8439362 160 116 95
0.0398193412 0.613608241 2.84445548 160 116 95
0.0487845317 0.425777495 2.85218549 175 127 53
0.094519861 -0.0718135983 2.44902301 54 48 45
0.0700494274 -0.121303707 2.45841932 232 216 165
0.0700494274 -0.121303707 2.45841932 232 216 165
0.0280862339 0.615685105 2.93242908 163 137 115
0.0276343636 0.61572516 2.93234229 163 137 115
0.0296792611 0.506807327 2.79390645 172 145 123
0.0407049358 0.367832661 2.79034781 179 151 134
0.0405839607 0.367883891 2.7902174 179 151 134
0.0412689857 0.508701682 2.85578799 172 143 128
0.0376911871 0.508691967 2.85543585 172 143 128
0.0387190953 0.526199102 2.71070504 165 139 118
0.00537743885 0.509660721 2.87796068 176 143 126
0.032656718 0.510202885 2.90148258 171 140 119
0.032656718 0.510202885 2.90148258 171 140 119
0.0166058596 0.531837642 2.77178597 172 140 122
0.0649991855 -0.05308263 2.84080958 229 206 192
0.0585770905 -0.142028749 2.81816268 242 218 208
0.0275424868 0.550480247 2.88728881 165 133 111
0.0275424868 0.550480247 2.88728881 165 133 111
0.0295594111 0.533620298 2.79327965 171 141 124
0.0433688201 0.209879011 2.77044797 209 184 165
0.028807126 0.60892117 2.87773347 163 135 114
0.028807126 0.60892117 2.87773347 163 135 114
0.0535827316 -0.0795587003 2.741328 232 213 199
0.0236128829 0.537022233 2.85938358 169 145 122
0.0435919128 -0.0714620352 2.83014345 229 206 192
0.0335187651 0.550169766 2.84991503 119 59 55
0.0335187651 0.550169766 2.84991503 119 59 55
0.0393921845 0.212904483 2.81395197 208 182 164
0.0322757997 0.168201461 2.78864789 211 187 170
0.0322757997 0.168201461 2.78864789 211 187 170
0.019240329 0.393510729 2.7798357 175 144 127
0.0512547754 0.0778143108 2.75852394 221 198 183
0.0410036705 0.390188634 2.74175191 173 145 129
0.0227417015 0.624820173 2.91663146 119 46 39
0.0227417015 0.624820173 2.91663146 119 46 39
0.0136373639 0.0193402711 2.74571872 226 204 190
0.0591680333 -0.0775874332 2.80852413 226 200 186
0.0225057565 0.623302281 2.88997555 109 48 35
0.0225057565 0.623302281 2.88997555 109 48 35
0.0182076655 -0.0629868209 2.81903219 226 204 187
0.0579752773 -0.0958058909 2.84288883 232 209 193
0.0579752773 -0.0958058909 2.84288883 232 209 193
-0.061664544 0.40059185 2.79570222 177 147 132
0.0641854182 -0.264193952 2.67460847 216 112 82
0.0610108823 -0.0751095638 2.84746909 235 209 195
0.0250325091 0.550083935 2.86786747 149 91 77
0.0250325091 0.550083935 2.86786747 149 91 77
0.0240085684 0.519368708 2.83050156 153 92 86
0.02739802 0.494108349 2.86027455 148 100 86
0.0298697613 0.494003475 2.86022234 148 100 86
0.0243484676 0.59862417 2.7746923 111 46 36
0.02781941 0.494567513 2.87932467 151 94 83
0.0278194062 0.494567543 2.87932467 151 94 83
0.0262908824 0.497995913 2.92235899 141 85 73
0.0279462896 0.497982353 2.92216492 141 85 73
0.0234513134 0.523880959 2.86788106 184 122 114
0.020656012 0.616355121 2.76593995 113 45 36
0.0194957778 0.616367698 2.76590848 113 45 36
0.0592259988 0.0731027275 2.68571448 221 199 185
0.0388033241 0.488503098 2.77967381 129 67 62
0.0388019048 0.488503158 2.77967381 129 67 62
0.0270959511 0.543992519 2.76300955 138 90 78
0.0290714093 0.543764591 2.76305509 138 90 78
0.0378532931 0.510212421 2.68089628 143 90 85
0.0225378964 0.601774037 2.90444183 107 43 38
0.0225378964 0.601774037 2.90444183 107 43 38
0.0309536122 0.495489597 2.90122032 182 134 120
0.0315501615 0.541582942 2.74620366 150 90 88
0.0399824865 0.802299857 2.63028383 61 17 32
0.0399824865 0.802299857 2.63028383 61 17 32
0.0370633379 -0.0289675146 0.883230925 36 32 30
0.0300169624 0.807434797 2.66105342 69 16 32
0.0229522847 0.598643959 2.86782336 119 51 35
0.0318327956 0.515435815 2.75256824 145 93 87
0.0797879174 0.425294816 1.89054441 157 147 138
0.0553032905 0.0698977262 2.82972836 128 105 90
0.0553032905 0.0698977262 2.82972836 128 105 90
0.0289796777 0.372969449 2.76177311 171 149 133
0.0395917185 0.382613093 2.80039406 95 71 60
0.0413805842 0.219820857 2.74416327 203 182 163
0.0570451766 0.412706286 1.93404162 157 147 139
0.0315927453 0.545314312 2.79601407 168 139 120
0.0274200626 0.54544729 2.795717 168 139 120
0.0320946425 0.222516477 2.77924657 141 114 101
0.0320946425 0.222516477 2.77924657 141 114 101
0.0659300759 -0.234076202 2.77414322 244 208 195
0.0659300759 -0.234076202 2.77414322 244 208 195
0.0496455245 -0.152347729 2.43221569 227 214 167
0.0377253368 0.33968389 2.78846073 116 93 82
0.0613331124 -0.0865052566 2.81659245 173 149 138
0.0486841798 -0.0218388774 2.69105172 180 160 152
0.0579088181 0.537078142 1.91159177 132 113 98
0.054838784 0.397320002 1.93144393 163 144 131
0.0604802296 -0.186847389 2.3524313 210 198 152
0.0399167165 0.0198741481 1.00957859 202 199 190
0.0312193856 -0.0673219636 1.15243876 221 222 218
0.0195372738 0.464155465 2.54617381 106 90 76
0.0415844172 -0.00887873955 2.76709986 222 197 184
0.0415844172 -0.00887873955 2.76709986 222 197 184
0.0581071228 -0.169363365 2.73645258 231 210 194
0.0581071228 -0.169363365 2.73645258 231 210 194
0.0332244746 0.540178001 2.71795678 157 95 89
0.0771043599 -0.256923527 2.75148344 237 208 192
0.0339524001 0.608589053 2.72269535 161 131 109
0.0443726815 0.358319223 2.74773073 170 148 130
0.0503916033 0.0430832729 2.72844219 131 109 97
0.0503916033 0.0430832729 2.72844219 131 109 97
0.0360137261 0.345733404 2.74585629 170 149 129
0.0561412275 0.0444282815 2.75940299 140 113 102
0.0561412275 0.0444282815 2.75940299 140 113 102
0.06585484 -0.179210305 2.77542639 161 139 125
0.06585484 -0.179210305 2.77542639 161 139 125
0.0527569801 0.191756487 2.67294693 167 143 130
0.0527569801 0.191756487 2.67294693 167 143 130
0.0306722224 0.337337255 2.70663619 129 106 98
0.050789196 0.063842468 2.70295739 147 120 111
0.050789196 0.063842468 2.70295739 147 120 111
0.0549688339 0.611957073 2.10586095 157 147 150
0.0396561399 0.348654389 2.71353364 99 80 65
0.0565308705 -0.00173337385 2.77191639 164 142 129
0.0538003258 -0.000695585273 2.77153873 164 142 129
0.0295832269 0.372789353 2.74832153 164 140 121
0.0406349972 0.356936216 2.71710944 170 147 132
0.0402079783 0.357055128 2.71721339 170 147 132
0.0638359189 0.335817784 2.54457688 102 88 75
0.0445980057 0.392568886 0.697574973 64 98 65
0.0540352389 -0.0720892623 2.88521981 232 205 193
0.049632702 0.394499004 1.07573807 31 52 79
0.0771918073 -0.100914761 2.85879445 233 211 197
0.0246133283 0.5132972 2.94488096 173 139 118
0.0258903094 0.495273739 2.84440327 175 136 121
0.0239093117 0.509551704 2.84007311 169 139 121
0.0205594748 0.501741171 2.75289273 168 140 121
0.0205594748 0.501741171 2.75289273 168 140 121
0.0381782129 0.532798409 2.81364703 167 140 119
0.0381782129 0.532798409 2.81364703 167 140 119
0.0236657038 0.553671002 2.91432858 123 58 50
0.0236657038 0.553671002 2.91432858 123 58 50
0.0347544588 0.505673289 2.80983734 170 142 123
0.0347544588 0.505673289 2.80983734 170 142 123
0.0408627763 0.153610498 2.9183197 215 189 169
0.0408627763 0.153610498 2.9183197 215 189 169
0.0611419678 -0.0334667005 2.77986383 227 204 189
0.0431291088 0.210631713 2.79595399 212 185 167
0.0584009439 -0.0666315556 2.79153371 229 206 191
0.0417824797 0.197356641 2.94068789 210 181 160
0.0849378482 -0.265347868 2.77815795 229 121 103
0.0285869129 0.217310011 2.90777087 204 177 157
0.0650963709 -0.224225193 2.8004508 227 120 99
0.0410390198 0.0620992184 2.8239615 220 194 177
0.0410390198 0.0620992184 2.8239615 220 194 177
0.0708007067 -0.0988107622 2.87257695 232 209 194
0.0645218417 -0.0751512796 2.87382317 232 209 195
0.0240083076 0.519368768 2.83050179 153 92 86
0.0301576257 0.553998649 2.93334436 139 86 72
0.0301576257 0.553998649 2.93334436 139 86 72
0.0361401774 0.487107575 2.75826597 147 86 84
0.0722370446 -0.249129266 2.79780602 232 125 106
0.0461238101 0.415066004 2.53913522 114 98 81
0.0287781954 0.515471816 2.75238514 145 93 87
0.0379848592 0.384222478 2.82647491 171 145 130
0.0250466429 0.627551019 2.94420886 110 42 35
0.0250466429 0.627551019 2.94420886 110 42 35
0.0462833717 0.186997533 2.93373632 158 133 115
0.0462833717 0.186997533 2.93373632 158 133 115
0.0547227189 0.0185809676 2.7074182 156 131 124
0.0547227189 0.0185809676 2.7074182 156 131 124
0.0730728507 -0.238830894 2.80665851 246 212 201
0.0375150852 0.343425423 2.72293305 170 151 136
0.035928648 0.603475273 2.94684172 112 45 34
0.032039918 0.603592813 2.94640422 112 45 34
0.0395900607 0.382613182 2.80039406 95 71 60
0.0643084645 -0.0414449088 2.82310009 195 172 158
0.062677756 0.156035796 2.83699608 183 160 144
0.0160497222 0.62286818 2.86495972 111 42 31
0.0428691767 0.371446937 2.72958446 170 148 129
0.0476011746 0.229742736 2.95740151 141 111 93
0.0355590954 0.345560074 2.74585462 175 152 136
0.0247282945 0.591117501 2.74428844 115 46 40
0.0437032767 0.175022364 2.72836089 160 138 125
0.0437032767 0.175022364 2.72836089 160 138 125
0.0498802178 0.0950257406 2.85209441 91 69 55
0.0498802178 0.0950257406 2.85209441 91 69 55
0.0205374602 0.592727125 2.77801228 117 45 38
0.0205374602 0.592727125 2.77801228 117 45 38
0.0669205561 -0.184598595 2.82171416 246 223 209
0.0255149677 0.676981926 2.88736296 136 118 98
0.0286985785 0.38266778 2.78835726 159 137 122
0.0301724188 0.201986462 2.81187701 145 119 105
0.0301724188 0.201986462 2.81187701 145 119 105
0.0230534561 0.604745924 2.76631594 165 134 107
0.0226028021 0.605004966 2.76608396 165 134 107
0.0419068374 0.17445901 2.74805212 121 98 84
0.0514004193 0.398941517 1.97248912 167 150 133
0.0470933691 0.49305135 0.877325773 121 181 186
0.0108886566 0.583483219 2.93110704 155 138 124
0.0118777379 0.597996056 3.23442578 155 133 119
-0.00744395191 0.583631277 2.97650599 153 136 122
-0.0187715888 0.595343232 3.18070269 155 136 122
0.021297168 0.61224097 3.00373125 135 99 83
0.033270184 0.587116063 3.02691007 156 137 123
0.015262736 0.606039524 2.72144341 156 132 124
0.016838463 0.60575974 2.72147894 156 132 124
0.0140538402 0.615438402 3.03812242 120 58 48
0.00772016682 0.624900997 3.11297035 156 130 111
0.00234682299 0.621967793 3.17125654 136 87 76
0.0177302435 0.519301474 3.03775573 163 139 126
0.0290628336 0.538455129 2.89806962 162 140 128
0.0290628336 0.538455129 2.89806962 162 140 128
0.0405793749 0.523598254 3.11898065 164 142 126
0.0348150805 0.523615956 3.1185627 164 142 126
0.0170377102 0.550617158 3.10739064 163 140 128
0.0170377102 0.550617158 3.10739064 163 140 128
0.0171079542 0.561369181 3.27711892 160 136 124
0.0171079542 0.561369181 3.27711892 160 136 124
0.0272785053 0.552618146 3.13420582 163 140 127
0.0272785053 0.552618146 3.13420582 163 140 127
0.0101431049 0.55288887 3.16001129 159 137 124
-0.00493984297 0.556435287 3.18770337 163 138 127
-0.0145731894 0.53108108 3.2281425 166 137 127
0.027265925 0.548467219 3.06441712 161 141 133
0.0456330702 0.526715338 2.95721149 161 137 116
0.0456330702 0.526715338 2.95721149 161 137 116
0.0186481625 0.536906302 2.87386584 159 138 125
-0.00483703334 0.557163715 3.21503377 162 135 126
-0.00483703334 0.557163715 3.21503377 162 135 126
0.0125563052 0.518789411 3.25653744 152 103 99
0.0288957134 0.545523405 3.03213835 159 143 128
0.0322704129 0.558281958 3.02277446 136 86 81
0.0322704129 0.558281958 3.02277446 136 86 81
0.0279466584 0.501431346 2.97323585 162 131 116
0.0341561511 0.513621211 2.96390128 164 143 129
0.0341561511 0.513621211 2.96390128 164 143 129
0.00384638645 0.542852938 3.19708395 136 89 83
0.00304119196 0.542861223 3.19687057 136 89 83
0.0239654109 0.52469337 2.90614486 134 85 82
0.0332491845 0.532071173 3.02577615 131 88 82
0.0403807461 0.519841433 2.80410743 140 94 92
0.00976307131 0.53986752 3.17069054 163 118 108
0.00976171158 0.53986752 3.17069054 163 118 108
0.0112751462 0.573809922 3.26584029 166 127 121
0.0112751462 0.573809922 3.26584029 166 127 121
0.032129664 0.488053173 2.73905778 157 110 109
0.0332158208 0.487922728 2.7391758 157 110 109
0.0230746455 0.545615733 3.01436496 162 143 129
0.0263605751 0.536362588 3.08168602 161 123 116
0.0263605751 0.536362588 3.08168602 161 123 116
0.0151872616 0.561936021 3.05276322 132 87 83
0.0151872616 0.561936021 3.05276322 132 87 83
0.0179750416 0.543462515 3.21777201 127 76 75
0.0179750416 0.543462515 3.21777201 127 76 75
0.0218575597 0.618493259 3.06517315 152 133 115
0.0530952252 0.421485901 2.66922808 156 104 99
0.0450382084 0.511429548 2.6622088 174 133 130
0.0450382084 0.511429548 2.6622088 174 133 130
0.00987132452 0.628516257 3.07566309 103 43 31
0.0343835987 0.56009531 3.03457618 147 108 98
0.0343835987 0.56009531 3.03457618 147 108 98
0.0102593545 0.517985225 3.26748633 149 100 96
0.0206143577 0.525413096 2.84847689 172 134 126
0.0253928676 0.578660011 3.34968042 123 73 72
0.0253928676 0.578660011 3.34968042 123 73 72
0.0171660613 0.598225772 2.71772766 107 45 39
0.00630276836 0.618453562 3.20803547 108 40 35
0.00630276836 0.618453562 3.20803547 108 40 35
0.014120426 0.533825994 2.78573585 160 141 132
0.0130023994 0.548593462 3.31072235 129 79 75
0.0130023994 0.548593462 3.31072235 129 79 75
0.00716320146 0.636668384 3.11251068 108 44 38
0.00716320146 0.636668384 3.11251068 108 44 38
0.00650289934 0.5668239 3.16881537 149 105 103
0.0201244559 0.521256328 3.30686164 129 76 76
0.00451933127 0.571236014 3.24336553 153 100 97
0.0084208902 0.605542362 2.83928442 106 45 35
0.0494987145 0.406356454 1.46055412 130 117 91
0.00477456115 0.575585186 3.16220737 162 135 126
0.00259806309 0.618240714 3.10505486 111 42 33
0.0296970904 0.553011179 3.00247502 124 69 65
0.00199901871 0.54464829 3.25978184 157 100 97
0.0308452025 0.526504636 2.93713999 121 68 63
0.0305250101 0.526420534 2.9371407 121 68 63
-0.00123896357 0.619333982 3.11943841 108 43 35
0.0183354933 0.61460042 3.00832725 155 138 116
0.0183357149 0.61460042 3.00832725 155 138 116
0.0138141196 0.598166287 2.86749768 107 45 33
0.0131412558 0.598146498 2.75954199 105 46 35
0.00884799287 0.624851465 3.22013664 154 130 109
0.0157658253 0.618972421 2.97213435 101 40 31
-0.000949919689 0.678103507 2.98539639 128 110 102
0.0170246474 0.626820743 3.25562119 155 132 118
0.0137779508 0.605817974 3.00151062 109 45 33
0.0189837497 0.631593227 3.23980188 147 128 111
0.0127530396 0.631381989 3.23866653 147 128 111
0.00603825506 0.628951967 3.13546419 108 47 38
0.0130819995 0.621020377 3.00002837 103 45 33
0.0176556464 0.563205659 3.11135578 156 140 123
0.0286639817 0.619159222 2.95918679 103 44 32
0.0148309935 0.618564129 2.95815849 103 44 32
0.0106413197 0.56986165 3.22919917 146 91 84
0.00810955837 0.625708938 3.15803552 157 134 116
0.00586377364 0.624109328 3.1428194 157 135 116
0.00586377364 0.624109328 3.1428194 157 135 116
0.0180517007 0.613836706 2.96558952 156 133 119
0.0180517007 0.613836706 2.96558952 156 133 119
0.0459259339 0.508145452 3.51294518 131 117 107
0.0310011283 -0.0603005588 1.15497482 218 213 209
0.0271159112 0.556109548 2.99428844 158 138 125
0.0327915624 0.642382324 3.25673795 151 130 114
0.0127779581 0.537518382 3.12705112 148 100 100
0.0199534446 0.641947329 3.24117804 154 129 116
0.012931481 0.614670157 2.97982574 155 136 118
0.012931481 0.614670157 2.97982574 155 136 118
0.0176515803 0.618037641 3.02326179 158 132 115
0.0268296599 0.617302835 3.04152465 106 44 31
0.0130752623 0.625241756 3.17680001 110 44 33
0.0382801034 0.472739637 3.51224566 128 113 102
0.00851489417 0.546590984 3.25260448 162 136 125
0.042049706 0.502967119 2.88460684 164 146 132
0.024040442 0.608630478 3.04185152 109 43 43
0.00450338516 0.68650353 3.11898041 109 96 85
0.0142884478 0.616643786 3.17800498 109 44 37
-0.236636177 0.246312693 0.0797082633 143 117 25
-0.0798027292 0.429248899 3.58567214 198 180 160
0.0241800882 0.476067543 3.09131289 165 155 154
0.0124591924 0.477427125 3.15379953 161 151 149
0.00296212453 0.46130693 3.30686307 167 125 126
0.00421435945 0.578362107 2.85822964 155 145 144
0.00884738006 0.430665135 2.54161882 26 25 32
0.0851286873 0.506567717 3.52772999 124 119 117
0.036568027 -0.0124348309 1.05115652 221 221 215
-0.167851314 0.54310286 3.52750683 166 151 138
0.0103001501 0.659592986 3.49335933 78 69 59
0.0254127458 0.541621327 2.97209191 158 146 146
0.019637404 0.558905423 3.25592399 157 143 142
0.0248682871 0.50587374 3.02520275 137 97 100
0.0377054513 0.509743452 2.87909365 161 150 152
0.0270567201 0.52144289 3.08857679 165 149 151
0.004886223 0.534832478 3.29289579 159 145 143
0.004886223 0.534832478 3.29289579 159 145 143
-0.00836262386 0.527779222 3.17825556 160 148 148
-0.00836262386 0.527779222 3.17825556 160 148 148
0.0149907582 0.509621382 3.14718294 139 89 100
-0.00105361873 0.567293048 3.15083909 170 137 139
-0.0010551759 0.567293048 3.15083861 170 137 139
0.0502135009 0.519705057 3.06189609 161 149 145
-0.00461657578 0.531447828 2.77205372 158 148 149
0.0149922147 0.518893182 3.28937197 159 120 125
0.0604830459 0.386315793 2.68019247 164 152 161
0.0454539433 0.426766932 0.730774403 84 52 41
0.036568027 -0.0124348309 1.05115652 221 221 215
-0.00250043813 0.570014894 3.19882989 149 111 114
-0.0438902564 0.340754151 0.0955243409 68 61 51
0.0272587053 -0.109162368 1.00473738 144 143 139
-0.0558584593 0.240707755 0.0358398668 31 26 24
-0.0835536718 0.562223792 3.5691936 136 119 111
-0.0835536718 0.562223792 3.5691936 136 119 111
-0.0458799079 0.142398089 0.0692806467 240 226 76
0.0293837748 -0.0991691351 1.22826862 145 145 142
0.00334475189 0.513911664 3.18593073 126 80 90
0.0116887689 0.513763189 3.18739128 126 80 90
-0.0827861354 0.407199144 3.57380199 155 142 123
-0.0827861354 0.407199144 3.57380199 155 142 123
0.0283881053 0.507341385 3.08074355 132 91 92
0.0408490077 0.420473099 2.7170794 134 89 93
-0.115796007 0.147219807 0.0701822639 217 209 84
0.020616537 0.525413036 2.84847689 165 136 138
0.0228462778 0.51933372 3.02127838 161 148 148
0.0367701873 0.519316375 3.02253985 161 148 148
0.0221996531 0.618191183 3.06368041 155 144 142
0.0138384439 0.510224223 3.09867001 165 118 129
0.0138384439 0.510224223 3.09867001 165 118 129
0.0170041453 0.508931756 3.11714458 132 86 95
0.0201251768 0.521256328 3.30686188 132 85 92
0.018063074 0.376552403 3.27586508 175 161 161
0.029667072 0.500713587 2.98966289 157 117 122
-0.0987048671 0.576060772 3.62373304 160 146 125
-0.00991885364 0.610715389 3.11138082 152 144 140
0.032298103 -0.0383060463 1.01644742 222 222 217
-0.090104565 0.63110745 3.59796643 156 144 122
0.0482593291 0.378432423 2.73583412 130 123 130
-0.100743569 0.621062934 3.59479189 67 12 15
-0.100743569 0.621062934 3.59479189 67 12 15
0.0267523602 0.62707293 3.25750017 152 137 135
0.0379724763 0.0192486886 0.819917202 228 220 207
0.0318310075 0.420004487 3.5136447 130 124 119
0.0193835534 0.610006809 3.08056831 109 52 44
0.0193835534 0.610006809 3.08056831 109 52 44
0.0760002434 -0.0404419005 2.69402862 217 195 179
0.0588291362 -0.143625408 2.46208 123 106 86
0.10703966 -0.228875488 2.35216355 175 166 133
0.0711834431 -0.239079952 2.71882892 234 193 174
0.0857732296 -0.053885147 2.69045758 160 136 125
0.0857732296 -0.053885147 2.69045758 160 136 125
0.0476233363 0.52477479 2.6695416 163 135 114
0.0540135652 0.499242783 2.72491789 167 138 121
0.0386918895 0.38853997 2.71473098 169 143 124
0.0433297306 0.153667837 2.74269414 161 138 122
0.0433313064 0.153667539 2.74269414 161 138 122
-0.0120955501 0.915046275 2.51255727 130 115 97
0.0442775562 0.0500080846 2.79149771 132 105 93
0.0561102182 0.172572106 2.74857759 148 124 111
0.0630182624 -0.100378387 2.47232366 181 154 99
0.0206598137 0.350008726 2.71277618 99 80 65
0.0642366484 0.147742137 2.70516205 168 145 133
0.0435286909 0.0873429328 2.72297025 99 78 70
0.0704280958 -0.0425757691 2.88725305 231 205 191
0.046933312 -0.19898428 2.8143034 237 214 200
0.0677898973 -0.26787129 2.78541136 254 211 187
0.0719778538 -0.269414663 2.78543878 254 211 187
0.0236024596 0.541960359 2.95306778 161 140 127
0.0214532334 0.539885461 2.93368936 170 141 120
0.0214532334 0.539885461 2.93368936 170 141 120
0.0609055907 0.524516225 2.66902447 163 142 121
0.042628482 0.195889518 2.92366171 210 183 162
0.0329596438 0.177343696 2.95944524 214 187 168
0.0329596438 0.177343696 2.95944524 214 187 168
0.069517456 -0.264403075 2.70405149 227 119 99
0.0769651607 -0.234741598 1.26458848 226 226 232
0.0512512662 0.208966479 2.79736996 212 185 167
0.0755718946 -0.245439619 2.78075409 214 107 86
0.0922413766 0.304017127 2.53672433 150 136 119
0.0379850157 0.384222478 2.82647491 171 145 130
0.0408412404 0.230044648 2.92720747 108 80 65
0.0643087104 -0.0414449498 2.82310009 195 172 158
0.062677756 0.156035796 2.83699608 183 160 144
0.0287165716 0.601862252 2.92109179 112 47 35
0.0338313468 0.400340945 1.8462944 134 123 119
0.0157391205 0.615243554 2.74243784 109 44 39
-0.00143684587 0.413656801 2.86786222 182 153 133
0.0820708498 -0.255705684 2.78741932 244 213 199
0.0142711997 0.599417865 2.8877449 115 47 38
0.0537749417 -0.100301348 2.44743395 171 164 128
0.0592543334 0.177334324 2.83966994 128 102 88
0.0996046215 -0.120610237 2.80966425 125 101 90
0.0713199303 0.19081299 2.71786737 141 119 104
0.0613014325 0.192370191 2.71726584 141 119 104
0.0114756972 0.224163502 2.80214524 129 103 91
0.0332448259 0.542002261 2.0338366 85 67 52
0.0329720527 0.534241796 1.89086807 120 101 87
0.0329720527 0.534241796 1.89086807 120 101 87
0.0470443405 0.399251491 1.8532033 125 105 97
0.0315131731 0.403167486 1.88947415 116 93 85
0.0297237597 -0.0857995823 1.04328144 134 130 132
0.0312020853 -0.0474191867 1.06777322 214 209 208
0.0672281682 -0.0756995156 3.3906064 206 142 166
0.0245215558 0.609447479 3.21122026 104 44 38
0.0245215558 0.609447479 3.21122026 104 44 38
0.0298654698 0.620581985 3.09405446 153 134 122
0.0217988286 0.54437536 2.99124241 157 137 123
0.0217988286 0.54437536 2.99124241 157 137 123
0.0141250268 0.509582758 3.14702582 138 75 75
0.00958290137 0.534025908 3.05299783 135 90 97
0.0236024596 0.541960359 2.95306778 161 140 127
0.00930748135 0.518355846 3.28734493 159 120 125
0.00487363525 0.50604248 2.8268559 163 144 130
